# .PCD v0.7 - Point Cloud Data file format
VERSION 0.7
FIELDS x y z
SIZE 4 4 4
TYPE F F F
COUNT 1 1 1
WIDTH 1464
HEIGHT 1
VIEWPOINT 0 0 0 1 0 0 0
POINTS 1464
DATA ascii
-307.14691 -89.684776 -1.980196
-303.15131 -88.597649 -1.8715144
-302.26184 -89.238853 -1.8516122
-301.44534 -89.93277 -1.888545
-297.46036 -89.065239 -1.8312447
-296.69653 -89.757217 -1.8313682
-292.7576 -88.80307 -1.868432
-291.5983 -89.110092 -1.7766365
-290.31363 -89.361786 -1.6648221
-289.16531 -89.671188 -1.6075457
-287.31659 -89.882751 -1.5980442
-285.76712 -89.930214 -1.722314
-278.16522 -89.62355 -1.5374281
-322.92926 -87.39473 -1.5307946
-322.33624 -88.210838 -1.5515352
-320.04602 -87.749542 -1.9462713
-318.34933 -87.432381 -1.7473123
-317.48325 -87.937927 -1.7309544
-315.75403 -87.89064 -1.806637
-314.44159 -87.879524 -2.0765965
-309.50082 -87.495399 -2.015193
-308.69385 -88.157578 -1.9790132
-304.70984 -87.108292 -1.8265063
-303.57285 -87.976349 -1.8392584
-302.84863 -88.423866 -1.9227442
-299.03696 -87.455353 -1.9318892
-298.2822 -88.226143 -1.8898183
-294.25299 -87.247719 -1.8535551
-293.10382 -87.59259 -1.7783843
-291.8381 -87.83564 -1.6708307
-290.73709 -88.247604 -1.644022
-289.05411 -88.210548 -1.5992876
-279.42154 -88.019203 -1.5096089
-325.58472 -85.554245 -1.6893835
-324.44666 -85.892204 -1.5493281
-323.58606 -86.520355 -1.5565828
-321.84216 -85.928497 -2.0350707
-319.85342 -85.733452 -1.727263
-318.82214 -86.274284 -1.7259386
-317.34683 -86.087585 -1.8973144
-315.92038 -86.404182 -2.0861049
-310.94589 -86.028053 -2.003619
-310.21396 -86.636971 -2.0010114
-306.15717 -85.611275 -1.8030232
-305.31738 -86.248276 -1.8400809
-304.42041 -86.692116 -1.8596965
-300.57672 -85.995216 -1.8897531
-299.71838 -86.740677 -1.9067633
-295.75119 -85.780983 -1.8801754
-294.58707 -86.083488 -1.7781659
-293.3157 -86.318451 -1.6749988
-292.22302 -86.749771 -1.6468989
-281.54535 -85.748123 -1.5141772
-327.03748 -84.093513 -1.6456336
-326.11581 -84.506905 -1.5816748
-325.03519 -85.172249 -1.6002159
-323.30115 -84.878593 -2.0760272
-321.30673 -84.323227 -1.7198465
-320.42688 -84.945335 -1.7230533
-318.41193 -84.628174 -2.0044727
-317.41608 -84.916107 -2.1061966
-312.42676 -84.542931 -2.0246828
-311.63272 -85.23584 -2.0167239
-306.87772 -84.623528 -1.8515738
-305.89023 -85.437645 -1.8537149
-301.97116 -84.503204 -1.8613212
-301.21503 -85.223038 -1.832679
-297.19107 -84.311646 -1.9044355
-295.99496 -84.591454 -1.840076
-294.81586 -84.810532 -1.6888123
-293.60748 -84.963539 -1.6207285
-327.53201 -83.000229 -1.5737422
-326.74741 -83.54364 -1.6014912
-324.7923 -83.38765 -2.0753901
-322.90744 -82.865669 -1.7111955
-321.94272 -83.497849 -1.7124608
-319.94931 -82.980591 -2.0827727
-318.94437 -83.428932 -2.1296973
-313.95432 -83.045509 -2.0166531
-313.22894 -83.703705 -2.0060258
-309.18079 -82.591293 -1.9228877
-308.08459 -83.394257 -1.8894563
-307.33389 -83.767555 -1.906227
-303.42184 -83.032852 -1.8465945
-302.74661 -83.660736 -1.8542485
-298.73318 -82.808662 -1.8767804
-297.59903 -82.998146 -1.8841511
-296.29697 -83.283394 -1.7752109
-295.0553 -83.357597 -1.6673743
-293.59464 -83.681503 -1.5936563
-329.01669 -81.518684 -1.5910085
-328.04022 -82.108109 -1.6557226
-326.23947 -81.776649 -2.0830281
-324.40219 -81.370483 -1.7240682
-323.50531 -81.96051 -1.7290599
-321.62299 -81.395889 -1.9853674
-320.44653 -81.909958 -2.1375406
-315.47357 -81.38723 -2.0659184
-314.66779 -82.137451 -2.0230639
-310.63171 -81.073448 -1.8645076
-309.69009 -81.867104 -1.8677979
-308.92865 -82.3853 -1.9585334
-304.99814 -81.452812 -1.903015
-304.20471 -82.226913 -1.9166443
-300.20026 -81.304237 -1.9120789
-299.22943 -81.739082 -1.8752322
-297.69513 -81.677864 -1.8168291
-296.36923 -81.849854 -1.6769981
-295.4072 -82.372734 -1.6463312
-286.15393 -81.229065 -1.5025529
-330.47089 -80.048683 -1.5853831
-329.51944 -80.612694 -1.6739058
-327.89963 -80.309402 -2.1239173
-325.86087 -79.838264 -1.7243402
-325.00607 -80.478294 -1.7232096
-323.00671 -79.9944 -2.0662653
-321.918 -80.451904 -2.1318598
-320.99255 -80.888077 -2.1708941
-316.94931 -79.923645 -2.0239038
-316.19238 -80.587631 -2.0495255
-312.23328 -79.551414 -1.8575195
-311.23431 -80.320351 -1.8502843
-310.35522 -80.846771 -1.9601833
-306.52753 -79.938881 -1.9182156
-305.69714 -80.664291 -1.9101688
-301.71545 -79.784683 -1.9340228
-300.75409 -80.250237 -1.9035082
-299.02557 -80.145279 -1.8638372
-297.87253 -80.369743 -1.6893104
-296.82257 -80.605034 -1.6237367
-331.87186 -78.536812 -1.5761726
-331.00433 -79.160294 -1.6526905
-329.21991 -78.907112 -2.1390522
-327.34921 -78.416809 -1.6993442
-326.47498 -79.07399 -1.7379303
-324.397 -78.437263 -2.080132
-323.42719 -78.96563 -2.1589577
-318.43793 -78.503929 -2.0057769
-317.59515 -79.14399 -2.0128691
-313.51385 -78.365097 -1.8499644
-312.8075 -78.801437 -1.8483284
-311.94882 -79.374878 -1.9854505
-308.05081 -78.433769 -1.879662
-307.21405 -79.207764 -1.9204395
-303.24774 -78.25531 -1.9562174
-302.16818 -78.783127 -1.9416353
-300.48288 -78.525864 -1.9371737
-299.31598 -78.768066 -1.7785859
-298.2103 -79.021217 -1.6642859
-296.76614 -79.316971 -1.5022817
-289.58237 -78.259178 -1.5027623
-289.18631 -78.633972 -1.5186293
-333.45682 -76.886429 -1.5877491
-332.53824 -77.501625 -1.65756
-330.93909 -77.341446 -2.1054246
-328.91641 -76.84803 -1.7136974
-327.97766 -77.496117 -1.7268006
-326.16913 -76.943977 -1.9268967
-324.93671 -77.436569 -2.1583858
-319.90707 -76.952339 -2.0490429
-319.06863 -77.661858 -2.0338547
-315.2186 -76.638245 -1.819147
-314.33743 -77.223 -1.8681082
-313.24524 -77.897781 -1.9803909
-309.59555 -76.888779 -1.8680815
-308.68625 -77.744644 -1.8629507
-304.76883 -76.8097 -1.9347336
-303.77451 -77.343361 -1.9211705
-302.31494 -77.203117 -1.9502664
-300.6955 -77.257278 -1.8757228
-299.44699 -77.353416 -1.6696564
-298.39917 -77.835625 -1.6174374
-291.03458 -76.939529 -1.508882
-290.22498 -77.245987 -1.5119731
-335.15009 -75.472839 -1.6046811
-334.12329 -76.158058 -1.599331
-332.36911 -75.902504 -2.0773635
-330.49307 -75.465034 -1.7274586
-329.53537 -75.999336 -1.7273996
-327.38342 -75.35836 -2.0989256
-326.42847 -75.895454 -2.1608546
-321.42944 -75.48024 -2.0702317
-320.65106 -76.083664 -2.0405843
-316.71533 -75.108215 -1.8043948
-315.86655 -75.784622 -1.8013772
-310.93661 -75.532661 -1.9595375
-310.20166 -76.233047 -1.9365782
-306.26117 -75.241814 -1.9274406
-305.36993 -75.891373 -1.9255797
-303.59888 -75.977837 -1.9506968
-301.92764 -75.62265 -1.9207883
-300.79877 -75.796021 -1.7349735
-299.83401 -76.066139 -1.6491797
-292.56985 -75.214104 -1.5514575
-292.0148 -75.657379 -1.5622219
-336.55249 -73.883293 -1.5924054
-335.60648 -74.618362 -1.6420914
-333.83017 -74.360649 -2.0705378
-331.89539 -73.92598 -1.7209697
-331.07486 -74.518715 -1.7378294
-328.89474 -73.885315 -2.0879886
-327.91376 -74.425591 -2.156076
-322.96899 -73.925728 -2.0586011
-322.08408 -74.644928 -2.0516839
-318.24197 -73.556778 -1.8849188
-317.30042 -74.214005 -1.879428
-316.48798 -74.8554 -1.8479415
-312.67844 -73.792847 -1.9110737
-311.57159 -74.856941 -1.9457169
-307.7428 -73.732254 -1.9628539
-306.82849 -74.371002 -1.942816
-305.75754 -74.927895 -1.9361115
-303.20947 -73.807579 -1.9717059
-302.24698 -74.231087 -1.8182286
-301.03995 -74.424599 -1.6502541
-299.51959 -74.389755 -1.7209272
-294.24393 -73.5886 -1.5736833
-293.32547 -74.326057 -1.5644902
-292.41492 -74.931519 -1.5400447
-337.92697 -72.41449 -1.6002946
-337.11859 -73.104225 -1.6214298
-335.58136 -72.567543 -2.1010668
-333.41809 -72.364838 -1.7098608
-332.55191 -73.053146 -1.7257993
-330.53732 -72.449661 -1.9599158
-329.40027 -72.919083 -2.1681635
-324.4899 -72.497505 -2.0810697
-323.56494 -73.164291 -2.0375619
-319.67639 -72.153839 -1.8467746
-318.76483 -72.704636 -1.902809
-317.94791 -73.289986 -1.9790708
-313.98849 -72.452278 -1.924031
-313.20792 -73.225594 -1.8943588
-309.21634 -72.198906 -1.987849
-308.29614 -72.814522 -1.9857194
-307.32791 -73.165276 -1.987247
-304.64078 -72.164742 -1.9885329
-303.80405 -72.841431 -1.9026514
-302.28479 -73.088554 -1.6778191
-301.27716 -72.698013 -1.7296858
-295.56168 -72.164291 -1.5339168
-294.73636 -72.922119 -1.5655001
-293.92542 -73.421463 -1.6046932
-339.42224 -70.958176 -1.597887
-338.55084 -71.600449 -1.6434618
-336.63452 -71.547058 -2.0679266
-334.85327 -70.934364 -1.7143104
-334.05734 -71.52626 -1.7326449
-331.93539 -70.947945 -2.0778115
-330.8988 -71.410301 -2.1596231
-325.93411 -70.987946 -2.0693858
-325.12817 -71.696465 -2.0378144
-321.26889 -70.581062 -1.9070745
-320.25455 -71.240837 -1.8727907
-319.39923 -71.83448 -1.9955238
-315.52637 -70.944221 -1.9155916
-314.74362 -71.700714 -1.9187514
-310.70407 -70.689713 -1.9622682
-309.77792 -71.351845 -1.9618938
-308.83246 -71.790581 -1.9719613
-306.13437 -70.631577 -1.9901503
-305.34863 -71.325424 -1.9444646
-303.72797 -71.297386 -1.7293397
-302.3194 -71.276375 -1.742483
-300.70465 -71.027397 -1.7794641
-299.16592 -70.822876 -1.7729224
-297.82977 -70.66758 -1.5584108
-296.33286 -71.411331 -1.5524883
-340.78168 -69.414391 -1.5587052
-340.03528 -70.002991 -1.6259596
-338.12643 -70.085625 -2.0920079
-336.25537 -69.460365 -1.7045476
-335.48557 -69.912117 -1.7122773
-333.47144 -69.539024 -2.0914576
-332.38113 -69.935516 -2.1549122
-327.43262 -69.4981 -2.0905819
-326.58551 -70.154091 -2.068259
-322.77448 -69.099014 -1.8652424
-321.77271 -69.618256 -1.8959873
-317.03027 -69.440132 -1.9222838
-316.21582 -70.221336 -1.9295698
-312.25583 -69.194511 -1.9887185
-311.31586 -69.805649 -1.9741424
-310.30331 -70.273521 -1.9669064
-307.63885 -69.123566 -2.0055547
-306.88803 -69.848358 -1.9838425
-305.24075 -69.81517 -1.7531911
-303.6907 -69.698288 -1.7419165
-302.24243 -69.789246 -1.7257301
-300.77963 -69.749252 -1.7782286
-299.15674 -69.612144 -1.664523
-298.21835 -70.089981 -1.5677357
-342.46002 -67.979248 -1.6052151
-341.34262 -68.341904 -1.7642649
-340.08884 -68.312355 -2.042767
-337.73367 -67.82637 -1.8172666
-336.59003 -67.975616 -1.7207237
-335.17987 -68.217682 -1.842759
-333.88904 -68.389565 -2.1509488
-328.98425 -67.953072 -2.0751033
-328.13464 -68.647942 -2.0679681
-324.20898 -67.627571 -1.8947804
-323.18478 -68.294868 -1.8529835
-322.47498 -68.712311 -1.8931513
-318.50052 -67.947868 -1.9112234
-317.71149 -68.701942 -1.9257642
-313.69495 -67.695572 -1.9636171
-312.76157 -68.306892 -1.9738574
-311.85757 -68.804482 -1.9718322
-309.13354 -67.641129 -1.9932975
-308.37067 -68.360321 -1.9849604
-306.60727 -67.750183 -1.7938975
-305.20947 -68.156898 -1.7842966
-303.73312 -68.075348 -1.7613094
-302.21085 -68.212334 -1.711485
-300.63684 -68.07753 -1.6821929
-299.6358 -68.649551 -1.6346116
-343.95209 -66.498756 -1.5638171
-342.8812 -66.751282 -1.8161029
-341.31799 -66.971619 -2.0012813
-339.40137 -66.424171 -1.7558802
-338.18311 -66.888237 -1.7161044
-336.69824 -66.753006 -1.874301
-335.38327 -66.907265 -2.1380479
-330.43002 -66.498718 -2.0668609
-329.60867 -67.156258 -2.0608935
-325.68463 -66.063087 -1.8800584
-324.69489 -66.638435 -1.9032699
-323.94293 -67.252197 -1.8326117
-319.95822 -66.520424 -1.9285771
-319.21359 -67.19931 -1.9206865
-315.21609 -66.191177 -1.9590082
-314.27548 -66.79303 -1.9673454
-313.29047 -67.31823 -1.94154
-310.60455 -66.127914 -1.9817889
-309.85623 -66.867149 -1.9750218
-308.13794 -66.788437 -1.7865423
-306.65942 -66.6343 -1.7804847
-305.11414 -66.702324 -1.7709492
-303.73965 -66.795303 -1.760842
-302.21109 -66.656609 -1.6768346
-301.07294 -67.193932 -1.6254603
-345.58423 -64.937904 -1.5439266
-344.10889 -65.207779 -1.8616511
-342.88074 -65.442223 -1.9800323
-340.94443 -64.88633 -1.7258478
-340.03036 -65.568359 -1.7257749
-337.99792 -64.97068 -2.0040281
-336.86041 -65.409393 -2.1211383
-331.9523 -64.912155 -2.0420237
-331.10678 -65.646393 -2.0519679
-327.1474 -64.574188 -1.8784217
-326.26971 -65.13221 -1.8508189
-325.39978 -65.721008 -1.8668878
-321.47635 -64.952805 -1.9280401
-320.66107 -65.712723 -1.9273927
-316.7359 -64.675262 -1.9397838
-315.84833 -65.237373 -1.9566453
-314.82465 -65.81176 -1.9683895
-312.11826 -64.620338 -1.9919631
-311.34814 -65.375847 -1.9839064
-309.5874 -65.116379 -1.7841867
-308.22 -65.325577 -1.7794412
-306.68802 -65.089912 -1.7608461
-305.3118 -65.227219 -1.7554766
-303.69476 -65.234077 -1.6696377
-302.80438 -65.866333 -1.6094511
-347.07156 -63.432442 -1.6435335
-345.43927 -63.372013 -1.9425732
-344.4837 -63.672562 -1.9673023
-342.43948 -63.358364 -1.7184362
-341.56073 -63.985863 -1.7454704
-339.5506 -63.626221 -1.8707892
-338.36853 -63.889633 -2.0993071
-337.40088 -64.490578 -2.2123916
-333.4389 -63.398682 -2.0524166
-332.59396 -64.152359 -2.0433943
-328.64511 -63.11451 -1.8393875
-327.7811 -63.531132 -1.8765883
-326.91541 -64.197723 -1.8350329
-323.19418 -63.252163 -1.9375336
-322.46036 -63.931038 -2.0229735
-318.21747 -63.229225 -1.9339639
-317.33371 -63.781368 -1.9415326
-316.35696 -64.252296 -1.9458368
-313.60242 -63.104832 -1.9786421
-312.85837 -63.791328 -1.9853088
-311.10144 -63.622097 -1.7894368
-309.73035 -63.695812 -1.7811593
-308.19705 -63.694374 -1.7651391
-306.74191 -63.734028 -1.7608013
-305.20956 -63.680492 -1.6686301
-304.3526 -64.339417 -1.6191391
-348.25708 -62.362743 -1.5131727
-347.00909 -62.00597 -1.9165542
-345.85941 -62.388859 -1.9633242
-343.96268 -61.925694 -1.7453042
-343.02832 -62.557068 -1.7579502
-341.02792 -61.980114 -1.9968325
-339.87656 -62.380768 -2.0962572
-338.27655 -62.917622 -2.1767845
-334.94931 -61.917229 -2.0371597
-334.06079 -62.657471 -2.039346
-329.13513 -62.206364 -1.8595246
-328.34818 -62.766357 -1.8646003
-324.4549 -61.970825 -1.9146695
-323.7251 -62.656998 -1.9055016
-319.74054 -61.713619 -1.9237518
-318.79126 -62.292301 -1.9453872
-317.83527 -62.798431 -1.9730848
-315.11084 -61.608765 -1.9567697
-314.32593 -62.279568 -1.9545463
-312.68381 -62.101486 -1.7824003
-311.2699 -62.20454 -1.7699826
-309.7413 -62.19986 -1.7607701
-308.29721 -62.262005 -1.747142
-306.73434 -62.265541 -1.662239
-305.85977 -62.874821 -1.6166587
-349.85556 -60.632404 -1.6239947
-348.49112 -60.34412 -1.9154102
-347.51788 -60.757942 -1.9527646
-345.41968 -60.458836 -1.7434009
-344.5495 -61.059635 -1.7531474
-342.36957 -60.564079 -2.0239756
-341.35025 -60.894646 -2.0864797
-340.42908 -61.457069 -2.159205
-336.48749 -60.363293 -2.0036454
-335.67838 -61.088272 -2.0127547
-330.61945 -60.700077 -1.8787252
-329.86319 -61.149578 -1.8629938
-325.97308 -60.425392 -1.9031173
-325.19733 -61.192902 -1.915033
-321.21686 -60.187088 -1.9353834
-320.27121 -60.827385 -1.957485
-319.3269 -61.330971 -1.9663024
-316.60385 -60.100491 -1.9317752
-315.81949 -60.761559 -1.9316362
-314.21191 -60.527584 -1.7758231
-312.71774 -60.764744 -1.7668564
-311.23453 -60.737591 -1.7474126
-309.82996 -60.855904 -1.7346578
-308.17847 -60.696167 -1.6576366
-307.27145 -61.246868 -1.6181409
-351.86795 -58.741341 -1.5108048
-349.99335 -58.886787 -1.9193116
-348.85532 -59.274834 -1.933483
-346.96082 -58.894703 -1.7267761
-346.04199 -59.542267 -1.7494566
-344.03574 -59.092003 -1.8547968
-342.84152 -59.336021 -2.0885608
-341.92978 -59.566925 -2.1110079
-337.92944 -58.88866 -1.9870874
-337.1221 -59.604103 -2.0057404
-333.10583 -58.572945 -1.859534
-332.14764 -59.146244 -1.897801
-331.26654 -59.73436 -1.8734915
-327.45056 -58.924763 -1.8903488
-326.64673 -59.698902 -1.8895613
-322.65192 -58.74995 -1.9629787
-321.80954 -59.281101 -1.951372
-320.81641 -59.796864 -1.9757035
-318.11249 -58.595539 -1.9492899
-317.28333 -59.241379 -1.9118643
-315.72141 -59.177238 -1.7679511
-314.21323 -59.231693 -1.7541416
-312.7417 -59.24807 -1.7424704
-311.24258 -59.259254 -1.7337025
-309.65497 -59.195637 -1.658942
-308.74649 -59.753723 -1.5996444
-352.78305 -57.649055 -1.8252327
-351.37161 -57.421894 -1.9017937
-350.35016 -57.814388 -1.9549057
-348.40979 -57.440083 -1.7119776
-347.50882 -58.009811 -1.7470417
-345.56229 -57.484173 -1.9643172
-344.31747 -57.867714 -2.0774415
-339.36899 -57.424099 -1.9933277
-338.59357 -58.038601 -1.9893513
-334.53989 -57.250385 -1.8330078
-333.746 -57.626125 -1.8557863
-332.78244 -58.307034 -1.8590546
-328.92651 -57.460049 -1.8901806
-328.20468 -58.173317 -1.9013683
-324.24591 -57.178394 -1.9203135
-323.28174 -57.773838 -1.9460294
-322.28891 -58.338825 -1.9668121
-319.59045 -57.119457 -1.9597266
-318.73996 -57.750572 -1.9083599
-317.18018 -57.856621 -1.7622405
-315.74973 -57.689709 -1.7470313
-314.24667 -57.76757 -1.7367907
-312.78394 -57.782913 -1.7200484
-311.22021 -57.66267 -1.6639475
-310.19302 -58.074608 -1.6051817
-354.63531 -55.833775 -1.595578
-353.00058 -55.82869 -1.9333036
-351.94583 -56.199688 -1.9509679
-349.96118 -55.878105 -1.7143251
-349.05368 -56.519707 -1.729856
-347.13953 -56.082569 -1.9118152
-345.88324 -56.337063 -2.0747254
-344.68127 -56.829346 -2.0976765
-340.88785 -55.93763 -2.0155737
-340.11859 -56.560711 -2.0041802
-336.01324 -55.6805 -1.8461869
-335.27756 -56.158512 -1.8641884
-334.26474 -56.837711 -1.8515677
-330.48679 -55.911232 -1.9195967
-329.64114 -56.731598 -1.8982847
-325.70868 -55.705677 -1.9285854
-324.82657 -56.257385 -1.9393042
-323.84 -56.782707 -1.964249
-321.09787 -55.585999 -1.9542314
-320.24518 -56.268604 -1.9167849
-318.7406 -56.277359 -1.7569596
-317.22446 -56.2285 -1.7416956
-315.74002 -56.212379 -1.7327825
-314.25229 -56.314205 -1.7043716
-312.6579 -56.150543 -1.6621143
-311.65683 -56.629398 -1.5805334
-355.92557 -54.67635 -1.5205674
-354.63916 -54.643009 -1.8864866
-353.25552 -54.803684 -1.9369457
-351.45111 -54.455502 -1.712899
-350.53479 -55.041794 -1.7477077
-348.2963 -54.817837 -1.8484032
-347.42026 -54.868256 -2.0545912
-346.0607 -55.469299 -2.0954792
-342.37546 -54.426521 -2.016654
-341.56985 -55.089596 -2.0175879
-337.50879 -54.444229 -1.9768801
-336.65973 -54.774479 -1.8614726
-335.72055 -55.351906 -1.855711
-331.94586 -54.416264 -1.8827868
-331.13275 -55.228802 -1.8997614
-327.19952 -54.220615 -1.9518032
-326.29462 -54.787857 -1.9495655
-325.32892 -55.299461 -1.961526
-322.58936 -54.108803 -1.9805304
-321.72656 -54.723999 -1.8923159
-320.30869 -54.690048 -1.7505591
-318.70151 -54.836456 -1.7360479
-317.22815 -54.801628 -1.71403
-315.80582 -54.756748 -1.7131411
-314.14597 -54.636841 -1.6581929
-313.16428 -55.165096 -1.5964915
-357.63745 -52.855515 -1.5636581
-355.87408 -52.96093 -1.9244276
-354.89832 -53.287766 -1.9519809
-352.87341 -52.989777 -1.6958154
-352.05151 -53.595711 -1.7501025
-349.91742 -52.855152 -2.0208509
-348.91574 -53.395523 -2.0693681
-347.89648 -53.760365 -2.1004601
-343.88556 -52.870686 -2.0051212
-343.07016 -53.555355 -2.0038397
-339.26071 -52.632336 -1.9752752
-338.14026 -53.248302 -1.8728296
-337.27524 -53.810463 -1.8924959
-333.4397 -52.93214 -1.8798677
-332.73471 -53.620216 -1.8958396
-328.70596 -52.723305 -1.9451884
-327.76965 -53.300701 -1.9509712
-326.8244 -53.837086 -1.9535173
-324.10217 -52.601013 -1.9745631
-323.27032 -53.229816 -1.9127806
-321.75958 -53.187222 -1.7379818
-320.21753 -53.270836 -1.7180367
-318.78842 -53.323872 -1.7064912
-317.28375 -53.314487 -1.7066141
-315.63278 -53.162071 -1.6503872
-314.65366 -53.687073 -1.6138262
-358.91132 -51.586288 -1.5506282
-358.06537 -52.040249 -1.6389841
-356.29813 -51.784294 -1.9316156
-354.39752 -51.425289 -1.7129954
-353.37851 -51.881653 -1.7241613
-351.82816 -51.357414 -1.8996181
-350.39343 -51.983284 -2.0566187
-349.17175 -52.444866 -2.0541675
-345.39276 -51.376678 -2.004853
-344.57907 -52.049255 -1.9915748
-340.63354 -51.036797 -1.9446535
-339.71039 -51.668758 -1.8551813
-338.72754 -52.292095 -1.8520833
-334.87717 -51.470955 -1.8896867
-334.16315 -52.166382 -1.9009722
-330.26105 -51.188164 -1.9093586
-329.28809 -51.792351 -1.9423423
-328.3093 -52.319427 -1.9543715
-325.65488 -51.176323 -2.0027063
-324.78546 -51.782768 -1.9494483
-323.24911 -51.799454 -1.7456522
-321.75937 -51.614563 -1.7150933
-320.24893 -51.835899 -1.6839198
-318.75198 -51.763248 -1.6758155
-317.08279 -51.656776 -1.6878288
-316.21918 -52.02832 -1.6335787
-360.69998 -49.754623 -1.554505
-359.08304 -50.003994 -1.9063264
-357.6572 -50.199024 -1.924423
-355.92529 -50.002079 -1.7400522
-354.90271 -50.421078 -1.725901
-352.97284 -50.111702 -1.9484698
-351.98569 -50.50071 -2.0428245
-346.89166 -49.88026 -2.008131
-346.08548 -50.509933 -1.9870999
-342.173 -49.617741 -1.8690742
-341.18677 -50.174961 -1.8229442
-340.29156 -50.763062 -1.8763649
-336.53 -49.854687 -1.8977392
-335.70093 -50.596626 -1.9353533
-331.72275 -49.747208 -1.9106514
-330.81241 -50.275833 -1.9240395
-329.75882 -50.843891 -1.9411683
-327.12323 -49.596802 -1.9900326
-326.28937 -50.281921 -1.960996
-324.72736 -50.284119 -1.7551166
-323.18436 -50.277592 -1.734767
-321.72006 -50.120125 -1.7216518
-320.30948 -50.279953 -1.690232
-318.677 -50.123943 -1.6801642
-317.48141 -50.41605 -1.6390963
-316.26761 -50.983135 -1.6090989
-362.15799 -48.174656 -1.7830402
-360.40875 -48.420506 -1.9488764
-359.38562 -48.950157 -1.9659986
-357.62704 -48.283543 -1.7213324
-356.20532 -48.694706 -1.7054486
-354.7467 -48.867107 -1.850355
-353.54285 -49.036598 -2.0504529
-348.35831 -48.388832 -1.987383
-347.5882 -49.033627 -1.9940239
-343.70041 -48.04142 -1.8378861
-342.65637 -48.747684 -1.835729
-341.75705 -49.220867 -1.8193741
-337.89429 -48.459267 -1.8975221
-337.22946 -49.079674 -1.9056938
-333.09775 -48.14576 -1.9525591
-332.2037 -48.736431 -1.9410176
-331.33371 -49.326183 -1.9512761
-328.58612 -48.090912 -1.9814793
-327.78735 -48.852848 -1.9706403
-326.17209 -48.577003 -1.7688932
-324.6806 -48.685982 -1.7592201
-323.24316 -48.857864 -1.7487538
-321.75388 -48.636757 -1.7183771
-320.16852 -48.699486 -1.697634
-318.91681 -48.873619 -1.6480228
-317.88699 -49.323589 -1.6315432
-363.36862 -47.141087 -1.5659416
-362.21875 -47.309467 -1.8081691
-360.7955 -47.308994 -1.9365366
-358.94952 -46.931072 -1.708462
-357.80624 -47.296219 -1.7089672
-356.43628 -47.279514 -1.7911766
-355.017 -47.491692 -2.0855591
-349.74631 -46.936333 -1.9550651
-349.00711 -47.544781 -1.9730433
-344.24265 -47.173386 -1.8792988
-343.24261 -47.728771 -1.8435291
-339.4328 -46.936394 -1.8857862
-338.70032 -47.634815 -1.901338
-334.63202 -46.593723 -1.9376353
-333.73764 -47.196293 -1.9719824
-332.86417 -47.73085 -1.9915471
-330.09753 -46.578785 -1.9954449
-329.33197 -47.291435 -1.9888067
-327.65427 -47.149643 -1.7830617
-326.22473 -47.167416 -1.7667134
-324.75885 -47.237827 -1.7528948
-323.23788 -47.3927 -1.7289572
-321.60623 -47.074448 -1.6892948
-320.47342 -47.477669 -1.7034538
-319.34586 -47.81723 -1.6042211
-364.98141 -45.334644 -1.588814
-363.48337 -45.503952 -1.9739946
-362.42624 -45.978024 -1.9904256
-360.40375 -45.397331 -1.6975991
-359.51566 -45.827393 -1.730098
-357.5795 -45.639225 -1.9311838
-356.54324 -46.091785 -2.0658801
-351.33926 -45.340889 -1.9964799
-350.49484 -46.006161 -1.9636409
-346.56732 -45.09729 -1.8668734
-345.76807 -45.537479 -1.8642546
-344.78027 -46.157402 -1.8729184
-340.85904 -45.372223 -1.8683548
-340.01959 -46.312481 -1.8947762
-336.15967 -45.070137 -1.9735098
-335.23798 -45.675339 -1.9608328
-334.33084 -46.316383 -1.9924223
-331.62198 -45.098877 -2.0102999
-330.77197 -45.826359 -1.9848919
-329.19772 -45.57933 -1.7561461
-327.73825 -45.695866 -1.7718283
-326.25894 -45.743244 -1.7551879
-324.73907 -45.697639 -1.7360845
-323.13861 -45.61298 -1.719445
-322.01447 -46.018936 -1.6601093
-320.95496 -45.974934 -1.6991183
-366.29254 -43.793304 -1.5815585
-365.36749 -44.389118 -1.681227
-363.95627 -44.454094 -1.9926784
-361.89108 -43.913212 -1.6949512
-360.92346 -44.466545 -1.7161102
-358.96683 -43.970303 -2.0055685
-358.06454 -44.572021 -2.0839345
-352.86475 -43.85323 -1.9937366
-352.0423 -44.551468 -1.989316
-348.01855 -43.652187 -1.8616232
-347.19208 -44.187065 -1.8559046
-346.30627 -44.782513 -1.8924484
-342.46912 -43.849758 -1.9159592
-341.70377 -44.56105 -1.9155763
-337.60397 -43.606762 -1.9879912
-336.70569 -44.164024 -1.9640647
-335.36798 -44.396725 -1.9842908
-333.42188 -43.722973 -2.0234153
-332.36472 -44.352875 -1.9894358
-330.66846 -44.142513 -1.7763352
-329.28436 -44.251793 -1.7730505
-327.68604 -44.136093 -1.7505535
-326.2879 -44.294846 -1.7530794
-324.63358 -44.134727 -1.7138631
-323.45737 -44.452847 -1.6674688
-322.3931 -44.740246 -1.6918172
-367.76797 -42.292801 -1.5930998
-366.85498 -42.880337 -1.709457
-365.39062 -42.89827 -1.9915926
-363.35629 -42.381767 -1.6772071
-362.50153 -42.928772 -1.7108332
-360.67249 -42.595581 -1.9251518
-359.55481 -43.046993 -2.1045251
-354.37192 -42.335884 -1.9721851
-353.58548 -43.049797 -1.9829171
-349.57831 -42.1847 -1.8805532
-348.64243 -42.655453 -1.8646133
-347.73041 -43.390903 -1.8710732
-343.93384 -42.344357 -1.9661222
-343.04904 -43.110615 -1.9379803
-339.14636 -42.091564 -1.9495081
-338.2084 -42.652889 -1.990591
-336.71036 -42.702641 -2.003083
-335.02344 -42.468254 -2.0006187
-333.73752 -42.689598 -1.849188
-332.51553 -42.583286 -1.6988094
-330.70645 -42.745121 -1.7773263
-329.26791 -42.740856 -1.7645147
-327.80405 -42.770016 -1.7662724
-326.1525 -42.625443 -1.723721
-324.89899 -43.011806 -1.7012483
-323.84924 -43.400124 -1.5801928
-369.2941 -40.794918 -1.5758193
-368.38361 -41.356617 -1.6883562
-366.92529 -41.324299 -1.9880599
-364.86987 -40.841217 -1.7064569
-363.9845 -41.524456 -1.7128257
-361.98404 -40.972588 -2.0676682
-361.12823 -41.631424 -2.1086447
-355.84659 -40.865528 -1.9981549
-355.06747 -41.55373 -1.9714838
-351.2468 -40.541763 -1.8380443
-350.17459 -41.149368 -1.8802159
-349.32965 -41.778992 -1.8870522
-345.44028 -40.885792 -1.8861172
-344.71021 -41.510315 -1.8921734
-340.58887 -40.640762 -1.9462374
-339.70105 -41.092625 -1.970302
-338.16647 -41.144028 -2.0123708
-336.63599 -41.017941 -1.9690876
-335.23004 -41.211662 -1.8195102
-334.01831 -41.4636 -1.6673506
-332.00137 -41.499096 -1.7135568
-330.71622 -41.280853 -1.7571905
-329.26138 -41.29554 -1.7552594
-327.55011 -41.149933 -1.7115641
-326.4017 -41.458874 -1.650625
-325.2572 -41.840626 -1.6321483
-370.95255 -39.25005 -1.5813674
-369.78375 -39.758625 -1.6810256
-368.49695 -39.923325 -1.9879165
-366.36734 -39.406658 -1.7073966
-365.51361 -40.016087 -1.7066903
-363.48721 -39.459846 -2.0972064
-362.61404 -40.21439 -2.1255777
-357.37811 -39.384098 -2.0160246
-356.54391 -40.087185 -1.9845095
-352.58524 -39.08675 -1.8227664
-351.66058 -39.72773 -1.8705719
-350.71619 -40.304279 -1.8298651
-346.95874 -39.375732 -1.8937551
-346.11154 -40.119553 -1.8936694
-342.07428 -39.163956 -1.9486685
-341.23831 -39.650814 -1.9490613
-339.76712 -39.735168 -1.9913992
-338.1459 -39.596016 -1.9516019
-336.79236 -39.757164 -1.778664
-335.50677 -40.056469 -1.6675885
-334.06085 -39.852375 -1.7608981
-331.76535 -40.316853 -1.7384635
-330.62607 -39.899586 -1.7246718
-329.16583 -39.645718 -1.6834939
-327.85098 -40.08667 -1.6598511
-326.8074 -40.354317 -1.6055099
-372.32394 -37.971817 -1.5791668
-371.25815 -38.460217 -1.669849
-369.8537 -38.363056 -1.9806229
-367.85565 -37.809055 -1.6926544
-366.98602 -38.465164 -1.7084411
-365.24612 -38.161015 -1.9540689
-364.18695 -38.707573 -2.0954506
-358.86279 -37.824444 -2.002496
-358.13144 -38.539433 -1.997257
-354.02988 -37.710751 -1.8208722
-353.23422 -38.182808 -1.8217002
-352.35419 -38.787045 -1.8604798
-348.30865 -38.021198 -1.9013497
-347.61813 -38.6492 -1.9137666
-343.6521 -37.646801 -1.9331841
-342.69101 -38.090511 -1.9510381
-341.11276 -38.104576 -1.9701723
-339.6701 -38.146912 -1.8647197
-338.19659 -38.270809 -1.7420278
-337.11258 -38.635403 -1.6857069
-335.62677 -38.432495 -1.687547
-334.26663 -38.57917 -1.7833853
-330.45309 -38.272774 -1.6446565
-329.18466 -38.493011 -1.5826237
-328.41534 -38.836876 -1.5995783
-373.78061 -36.508591 -1.5497022
-372.76514 -36.750256 -1.7571894
-371.28165 -36.873405 -1.9858067
-369.44653 -36.378208 -1.7279869
-368.5528 -36.966434 -1.7051355
-366.56287 -36.605175 -2.0785823
-365.72104 -37.259438 -2.0996189
-360.31055 -36.363678 -2.0099258
-359.53259 -37.078545 -1.9924051
-354.68573 -36.723576 -1.8513372
-353.79654 -37.364079 -1.8207002
-349.94717 -36.373081 -1.9024107
-349.15927 -37.093941 -1.9102924
-345.09174 -36.124077 -1.9455255
-344.20953 -36.591923 -1.9440943
-342.51086 -36.494846 -1.9423908
-341.23325 -36.768116 -1.8329554
-339.74216 -36.756958 -1.6927439
-338.51529 -37.087387 -1.6198808
-336.68622 -37.236225 -1.7820157
-335.74591 -37.310905 -1.7571858
-331.81824 -36.117046 -1.5468029
-330.84344 -36.622093 -1.5678135
-329.86411 -36.995167 -1.603992
-375.3674 -34.843613 -1.5609729
-374.35266 -35.253811 -1.7373571
-372.81677 -35.472759 -1.9494523
-370.8605 -34.823704 -1.7049308
-369.91757 -35.335846 -1.7077061
-368.11826 -35.069435 -2.0704319
-367.25699 -35.780556 -2.1167428
-361.81311 -34.822578 -1.9921985
-361.07153 -35.53347 -2.0028071
-357.25784 -34.51878 -1.8414022
-356.20605 -35.22522 -1.850775
-355.19745 -35.92704 -1.9108075
-351.30957 -34.999203 -1.8766993
-350.62747 -35.608318 -1.9224439
-346.57092 -34.643051 -1.9702915
-345.6821 -35.121189 -1.9545816
-344.02615 -34.968987 -1.8949587
-342.78201 -35.286335 -1.7807539
-341.27655 -35.24522 -1.6749005
-340.12497 -35.57539 -1.6341169
-338.34317 -35.404446 -1.7955436
-333.00726 -34.645061 -1.5570745
-332.3205 -35.250374 -1.5763323
-331.18655 -35.973694 -1.6159673
-375.78067 -33.726727 -1.8263811
-374.31314 -34.068462 -1.9112867
-372.32138 -33.342369 -1.6740632
-371.37216 -33.832813 -1.6981062
-369.77798 -33.741074 -1.960134
-368.81393 -34.277184 -2.0915906
-363.32327 -33.283733 -1.9800957
-362.49847 -34.042492 -1.9889998
-358.63107 -33.050518 -1.8434168
-357.52509 -33.885265 -1.8473493
-356.70529 -34.342102 -1.8552032
-352.89395 -33.34119 -1.967501
-352.04968 -34.012337 -1.8796009
-348.10184 -33.131516 -1.9273822
-347.12833 -33.671791 -1.9531314
-345.56708 -33.514263 -1.8866171
-344.27216 -33.854149 -1.7688422
-342.77798 -33.802937 -1.6340636
-341.65646 -34.233784 -1.6011693
-339.90881 -33.830605 -1.7681632
-338.98901 -33.925949 -1.7925717
-334.77606 -33.201939 -1.5412565
-333.86969 -33.764671 -1.5708393
-332.85635 -34.357788 -1.6009082
-378.5199 -31.833534 -1.5934681
-377.03723 -32.117176 -1.9747603
-376.05756 -32.336025 -2.0474231
-373.85352 -31.932608 -1.7448993
-372.5477 -32.108208 -1.6945847
-371.24393 -32.198578 -2.0365348
-370.31543 -32.781933 -2.0843987
-364.82608 -31.807554 -1.9977349
-364.04053 -32.497166 -1.9792795
-360.04382 -31.584194 -1.8756313
-359.10983 -32.264771 -1.8758314
-358.44614 -32.720417 -1.8420285
-354.28479 -32.016151 -1.9048568
-353.54822 -32.642612 -1.9225684
-349.5704 -31.657162 -1.997852
-348.5675 -32.087105 -1.9680291
-347.142 -32.080124 -1.8592128
-345.83359 -32.343082 -1.7512364
-344.30148 -32.303753 -1.6565608
-343.21338 -32.632019 -1.5866632
-341.75851 -31.81167 -1.7572551
-339.79813 -32.463215 -1.7354816
-336.17487 -31.714212 -1.5529233
-335.32297 -32.372036 -1.5685997
-334.38358 -32.943508 -1.6068891
-379.96048 -30.519361 -1.5736432
-379.06479 -31.107464 -1.6373367
-377.32889 -31.050171 -1.9617416
-375.31824 -30.334423 -1.7063925
-374.1745 -30.710855 -1.7110074
-372.84366 -30.923531 -1.9065025
-371.84888 -31.335039 -2.1224401
-370.33926 -31.457455 -2.10673
-366.28915 -30.334183 -1.9948539
-365.54034 -31.041325 -1.993353
-360.63257 -30.776979 -1.8650527
-359.81961 -31.313231 -1.8627989
-355.99289 -30.314688 -1.9334741
-354.92456 -31.185766 -1.8824378
-351.12564 -30.125656 -1.9904032
-349.96063 -30.467222 -1.9624897
-348.69308 -30.659693 -1.8237796
-347.29141 -30.775396 -1.7395629
-345.80298 -30.799408 -1.6558878
-344.69934 -31.194887 -1.5910428
-343.07224 -30.810659 -1.7358098
-341.51419 -30.927399 -1.752142
-337.79446 -30.219652 -1.5569513
-336.83282 -30.9312 -1.558098
-381.53638 -29.073378 -1.5773915
-380.26138 -29.340137 -1.858332
-379.02347 -29.303322 -2.0488355
-376.76843 -28.672667 -1.6498917
-375.80612 -29.133753 -1.7212937
-374.27206 -29.252182 -2.061626
-373.37457 -29.861185 -2.1559052
-367.84518 -28.814297 -1.9753184
-367.05054 -29.554768 -1.9802841
-363.12192 -28.559807 -1.8404028
-362.20679 -29.167603 -1.8844053
-361.23413 -29.83757 -1.8616066
-357.32364 -28.930601 -1.9177017
-356.5647 -29.620371 -1.9151119
-352.66141 -28.575766 -1.9964825
-351.41711 -28.913399 -1.9375843
-350.26926 -29.273489 -1.791671
-348.79218 -29.318691 -1.6867615
-347.38989 -29.428064 -1.6299834
-345.96744 -29.736937 -1.6378628
-344.46304 -29.296078 -1.7445116
-343.34027 -29.574741 -1.7209262
-341.27115 -28.589636 -1.771067
-339.26068 -28.841518 -1.564298
-338.45395 -29.483189 -1.5427897
-337.49625 -29.961334 -1.5526915
-382.86493 -27.741756 -1.5667353
-381.75912 -27.732367 -1.8938866
-380.36063 -27.852448 -2.0578506
-378.36816 -27.325098 -1.7349701
-377.32571 -27.919415 -1.7227523
-375.77383 -27.814213 -2.0986657
-374.73157 -28.245922 -2.1844835
-372.6163 -27.682579 -2.1978996
-369.36823 -27.285925 -1.968259
-368.51898 -28.040777 -1.9482379
-364.53275 -27.262705 -1.8439205
-363.71417 -27.664251 -1.867229
-362.867 -28.28735 -1.8568245
-358.8833 -27.364563 -1.9128313
-358.08969 -28.023409 -1.9152584
-354.13885 -27.066301 -1.9825699
-352.92496 -27.410383 -1.932757
-351.78363 -27.767536 -1.8121811
-350.21179 -27.663212 -1.7157123
-348.94061 -27.949812 -1.6376663
-347.73132 -28.084105 -1.6742221
-345.0459 -28.487131 -1.7546012
-344.81775 -28.387259 -1.7463706
-342.19275 -27.41647 -1.6414438
-340.88834 -27.407015 -1.5553461
-339.99384 -28.012917 -1.5520627
-338.90836 -28.435181 -1.5280955
-384.54105 -26.152605 -1.6827217
-383.19708 -26.09469 -2.0244069
-382.03677 -26.39959 -2.098109
-379.85422 -25.869669 -1.7287852
-378.85669 -26.359592 -1.7268716
-377.23364 -26.207026 -2.129694
-376.28745 -26.832619 -2.2035823
-374.62231 -26.894495 -2.1821208
-373.44113 -26.904348 -2.2270455
-370.85233 -25.81908 -2.0030453
-370.04016 -26.53422 -1.9766579
-366.10773 -25.57568 -1.8101257
-365.18018 -26.204458 -1.8450105
-364.28113 -26.889381 -1.8758322
-360.37653 -25.830242 -1.9525764
-359.57791 -26.613262 -1.9305674
-355.61963 -25.623463 -1.9834397
-354.42413 -25.904181 -1.9342728
-353.26495 -26.260807 -1.7959138
-351.69336 -26.217506 -1.71416
-350.51007 -26.47414 -1.6551404
-348.70541 -26.489658 -1.6996739
-347.86404 -26.84807 -1.7572321
-343.56531 -26.078081 -1.6922051
-342.44571 -25.896702 -1.5603182
-341.50421 -26.523718 -1.5467843
-340.38715 -26.864567 -1.5563095
-385.79419 -24.592918 -1.7526604
-384.5639 -24.784151 -2.0056891
-383.43887 -24.850872 -2.0466027
-381.48026 -24.315104 -1.7250701
-380.49588 -24.950457 -1.739972
-378.78293 -24.804445 -2.1410925
-377.61691 -25.280636 -2.1877544
-375.40628 -25.346708 -2.1010921
-372.39282 -24.378265 -2.015842
-371.61179 -25.065565 -2.0053089
-367.73645 -24.196484 -1.7861001
-366.80264 -24.692997 -1.8210553
-365.89056 -25.277287 -1.8623828
-361.88065 -24.3731 -1.9142827
-361.08569 -25.115797 -1.9145546
-357.07846 -24.142626 -2.0009108
-355.92987 -24.457863 -1.932519
-354.75943 -24.778164 -1.8118266
-353.26047 -24.653078 -1.7182034
-351.98825 -25.055586 -1.6472096
-350.29156 -24.646799 -1.7673244
-343.84927 -24.454536 -1.5818652
-343.09174 -24.982378 -1.553457
-386.15625 -22.897152 -2.1219406
-384.87186 -23.455843 -2.0859125
-382.87479 -22.885033 -1.7368286
-381.96194 -23.411043 -1.7863077
-380.28552 -23.313408 -2.1390071
-379.2525 -23.644075 -2.2080321
-373.93558 -22.900351 -2.0065632
-373.12637 -23.611691 -2.0179341
-369.05566 -22.989859 -1.8050985
-368.21829 -23.301777 -1.8097212
-367.29324 -23.856319 -1.8034313
-363.35645 -22.889181 -1.9069629
-362.6275 -23.529041 -1.9187839
-358.62247 -22.587902 -1.9691528
-357.45547 -22.964615 -1.9407198
-356.23776 -23.252569 -1.8182791
-354.81442 -23.25585 -1.6988008
-353.55667 -23.514486 -1.6338096
-351.80688 -23.464552 -1.7581338
-350.87546 -23.923666 -1.7454416
-346.59045 -22.52223 -1.7021816
-345.41809 -22.911287 -1.6008538
-344.45184 -23.476057 -1.5630901
-343.43301 -23.82254 -1.5151291
-389.36591 -21.552485 -1.6242907
-387.58014 -21.438259 -2.0543349
-386.33084 -21.796894 -2.1000814
-384.2897 -21.300322 -1.6896864
-383.35855 -21.811211 -1.7654119
-381.8327 -21.823853 -2.1470363
-380.77127 -22.229906 -2.2018869
-375.48999 -21.440472 -2.0314927
-374.62909 -22.177269 -2.0200605
-370.6138 -21.120491 -1.8506908
-369.59836 -21.807083 -1.861867
-368.72162 -22.376135 -1.8288023
-364.87247 -21.350348 -1.8846745
-364.07513 -22.137592 -1.9085883
-360.08569 -21.137774 -1.9614021
-358.90823 -21.421995 -1.9393306
-357.75467 -21.722145 -1.7907361
-356.21988 -21.832571 -1.7054698
-355.14679 -21.978357 -1.6160544
-353.47604 -21.825489 -1.7108322
-352.42596 -22.322693 -1.7604064
-348.1705 -21.011379 -1.6703517
-347.01089 -21.492807 -1.6517152
-345.94611 -21.956762 -1.5740842
-344.89355 -22.282484 -1.5730757
-390.09741 -19.860659 -2.0121191
-389.23404 -20.089218 -2.0723314
-387.94952 -20.405993 -2.1211722
-385.88052 -19.950432 -1.7136706
-384.8562 -20.533863 -1.748703
-383.34219 -20.406324 -2.1558228
-382.33893 -20.515514 -2.2580824
-377.0426 -19.982801 -2.039361
-376.21848 -20.693668 -2.0469038
-372.14294 -19.57925 -1.8975427
-371.21591 -20.253345 -1.8798224
-370.36694 -20.84985 -1.8854494
-366.36014 -19.862301 -1.8856792
-365.55148 -20.564005 -1.8896536
-361.59073 -19.570745 -1.9546192
-360.43317 -19.924797 -1.9504223
-359.25607 -20.263044 -1.8216796
-357.82794 -20.231768 -1.6956763
-356.42606 -20.655596 -1.6437317
-355.09579 -20.590094 -1.700949
-353.89734 -20.850071 -1.7262329
-349.6109 -19.576122 -1.5854204
-348.50269 -20.033995 -1.6155188
-347.45956 -20.492615 -1.5774945
-346.2543 -20.944948 -1.6093547
-393.24182 -18.094273 -1.6042517
-392.11923 -18.975445 -1.6384046
-390.59619 -18.503914 -2.1158161
-389.46249 -18.877281 -2.1028345
-387.48837 -18.496548 -1.7155039
-386.46957 -19.012947 -1.7718748
-384.80774 -18.969351 -2.141073
-383.12939 -19.176399 -2.1660621
-382.37811 -19.018171 -2.1406486
-378.58722 -18.549963 -2.0435553
-377.73547 -19.239363 -2.0399716
-373.66806 -18.141243 -1.8825517
-372.68234 -18.791515 -1.8475515
-371.69406 -19.154686 -1.8997844
-367.88971 -18.360291 -1.9102334
-367.03085 -19.092094 -1.908896
-363.06311 -18.045019 -1.9728167
-361.94943 -18.480293 -1.9593325
-360.72705 -18.737207 -1.8318539
-359.19598 -18.76442 -1.7075636
-358.13989 -19.244362 -1.6443499
-356.10239 -19.05442 -1.7193524
-355.08408 -18.879881 -1.7161764
-351.17139 -18.305466 -1.7242725
-349.92538 -18.519207 -1.6120136
-348.98135 -18.96356 -1.5742917
-347.80328 -19.460514 -1.5725894
-395.00394 -16.583979 -1.6216186
-393.60446 -17.546379 -1.6200961
-392.28342 -17.225243 -2.0938125
-390.59555 -17.100046 -1.9763714
-389.08234 -17.002352 -1.7326394
-387.87488 -17.441311 -1.8244382
-386.41461 -17.454077 -2.1822793
-385.21704 -16.946283 -2.4240294
-380.07239 -17.154366 -2.0347819
-379.24561 -17.826897 -2.066154
-375.19794 -16.620428 -1.8786891
-374.30417 -17.241293 -1.8603163
-373.31961 -17.871292 -1.8722229
-369.35358 -16.897945 -1.9224771
-368.51318 -17.601637 -1.9243768
-364.55185 -16.549301 -1.9783623
-363.49823 -16.955753 -1.9642218
-362.17105 -17.210583 -1.8388466
-360.67844 -17.290794 -1.7036406
-359.59995 -17.637041 -1.6521801
-358.28113 -17.206505 -1.758139
-353.85864 -17.31082 -1.7958698
-351.43875 -17.045101 -1.5861127
-350.40753 -17.388611 -1.5705807
-349.43549 -17.833706 -1.5605372
-396.2836 -15.391493 -1.5952449
-395.20255 -15.980992 -1.7696193
-393.76672 -15.931468 -2.0672569
-391.64505 -15.153309 -1.7831868
-390.6741 -15.651704 -1.7292
-389.35666 -15.847133 -1.9339832
-387.97681 -16.053785 -2.1885254
-386.37836 -15.921679 -2.409307
-382.51343 -15.188184 -2.0102186
-381.64069 -15.690277 -2.0107338
-380.82309 -16.317862 -2.0055289
-376.71179 -15.265026 -1.878616
-375.8089 -15.727274 -1.8933501
-374.77139 -16.242735 -1.8574538
-370.84399 -15.356767 -1.8873889
-370.0976 -16.0403 -1.9159151
-365.05444 -15.599619 -1.9647686
-363.68405 -15.660097 -1.8397738
-362.26453 -15.756853 -1.7002715
-361.11435 -16.071579 -1.6275891
-359.22202 -15.887128 -1.7288249
-352.72394 -15.275312 -1.5841074
-351.81564 -15.820859 -1.5705811
-350.89142 -16.393829 -1.56024
-397.7724 -14.077724 -1.6146873
-396.96002 -14.643542 -1.6367936
-395.2959 -14.224626 -2.0634696
-393.37128 -13.697806 -1.7694722
-392.19296 -14.360704 -1.7446406
-390.75531 -14.217751 -2.0398502
-389.4989 -14.6171 -2.2125349
-388.44019 -14.986611 -2.3482759
-384.18198 -13.592196 -2.082664
-383.33371 -14.194733 -2.0453537
-382.38586 -14.93774 -2.0059381
-378.2822 -13.712976 -1.9136447
-377.2225 -14.352598 -1.8821087
-376.28955 -14.864396 -1.857887
-372.37662 -13.911559 -1.9061005
-371.62668 -14.526857 -1.9033318
-367.52753 -13.540693 -1.898788
-366.55569 -14.004944 -1.9575236
-365.14227 -14.142272 -1.8166356
-363.71747 -14.270296 -1.693472
-362.76163 -14.657019 -1.6305196
-360.72345 -14.449548 -1.6983109
-359.5939 -13.77089 -1.7037699
-354.37009 -13.867111 -1.5458754
-353.26294 -14.318195 -1.5740677
-352.41406 -14.849846 -1.5712557
-399.47049 -12.544551 -2.1151993
-398.29483 -13.028976 -1.8772024
-396.91721 -12.877559 -2.0198879
-394.86908 -12.33178 -1.7545532
-393.93958 -13.036315 -1.7171526
-392.24472 -12.845533 -2.0490701
-391.13498 -13.076716 -2.2060957
-385.73218 -12.239182 -2.0684052
-384.82764 -12.96894 -2.0790758
-379.7323 -12.316946 -1.9282576
-378.87567 -12.795274 -1.8961086
-377.84268 -13.268309 -1.9154963
-373.93167 -12.425022 -1.9020243
-373.1362 -13.098505 -1.9043239
-369.02112 -12.021941 -1.8947906
-368.04022 -12.527798 -1.9663978
-366.63223 -12.619603 -1.8281506
-365.34744 -12.803602 -1.6903706
-364.09912 -13.030936 -1.6403148
-362.59448 -12.612874 -1.6234649
-355.73184 -12.298734 -1.5925556
-354.87332 -12.831629 -1.5612698
-353.85306 -13.357032 -1.5662488
-401.24915 -11.569875 -1.5986115
-397.6218 -10.824054 -1.857143
-396.64294 -10.913961 -1.7159672
-395.55652 -11.557364 -1.7328565
-393.65985 -11.448728 -2.2090871
-392.86392 -11.703836 -2.2490077
-387.35364 -10.80623 -2.0274413
-386.55505 -11.449129 -2.0480413
-381.28568 -10.837915 -1.8647522
-380.29419 -11.307935 -1.9193039
-379.25208 -11.775743 -1.9558138
-375.49265 -10.903713 -1.8945395
-374.65417 -11.619769 -1.9095722
-369.51108 -10.98465 -1.9479337
-368.09995 -11.105562 -1.8205949
-366.7775 -11.298151 -1.6937764
-365.55496 -11.557998 -1.6345494
-363.53607 -11.626511 -1.7189354
-357.27536 -10.802757 -1.5817554
-356.23917 -11.265525 -1.5755004
-355.27441 -11.857318 -1.5762402
-399.29959 -9.3868456 -1.785728
-398.01276 -9.7582579 -1.7186364
-397.14255 -10.079845 -1.7718759
-395.11182 -10.112967 -2.2476032
-394.42719 -10.18839 -2.1449726
-389.04327 -9.4118109 -2.0180719
-388.05505 -10.198188 -2.0234914
-382.83841 -9.4355145 -1.8777076
-381.72458 -9.8995209 -1.8626156
-380.85196 -10.321028 -2.0502532
-377.00928 -9.4009447 -1.8901492
-376.16312 -10.169795 -1.8870995
-370.96707 -9.472084 -1.9320269
-369.61148 -9.6219091 -1.8082758
-368.30322 -9.8095341 -1.6868985
-367.02094 -10.058908 -1.6354481
-365.63034 -9.4253263 -1.7367522
-358.9165 -9.2073183 -1.5509156
-357.7966 -9.7408991 -1.5717661
-356.84003 -10.401284 -1.5318716
-400.6618 -8.2683458 -1.8080056
-399.62149 -8.5723238 -1.7737948
-398.51251 -8.6404419 -1.7820896
-396.91968 -8.723527 -2.1525261
-395.31436 -7.5733633 -2.0669124
-393.08664 -7.6069918 -1.9763845
-391.54843 -7.5155377 -2.0821543
-390.78763 -8.0140648 -2.009603
-389.76233 -8.7980719 -2.0005105
-384.28748 -7.9456162 -1.8736426
-383.28586 -8.5169163 -1.8766549
-382.43503 -8.9571667 -1.9688549
-378.42987 -7.9889627 -1.9152676
-377.60995 -8.7585182 -1.9157022
-372.43683 -7.9779754 -1.936699
-371.15033 -8.1436186 -1.8074393
-369.8577 -8.3503428 -1.6824342
-368.52167 -8.4291821 -1.6208535
-366.96484 -8.0658789 -1.7442664
-365.82861 -8.8291492 -1.7445345
-360.23611 -7.7501421 -1.563174
-359.38229 -8.37325 -1.5620387
-358.44077 -8.8077097 -1.5723463
-396.93277 -6.6406693 -2.2070494
-395.90051 -6.5665622 -2.173794
-393.27225 -7.2281075 -1.9933077
-391.77673 -7.2422481 -2.0150967
-391.45465 -7.449852 -1.979512
-385.94955 -6.3997245 -1.8744849
-384.93176 -7.0266519 -1.8634144
-379.94266 -6.5151305 -1.891886
-379.24228 -7.0621767 -1.9139439
-373.91113 -6.3383837 -1.9560115
-372.68851 -6.6364822 -1.8072474
-371.29434 -6.7869391 -1.6732326
-369.94702 -6.9637489 -1.6116331
-368.53232 -7.1142941 -1.6416677
-367.41455 -7.299437 -1.7652813
-363.04214 -6.230629 -1.6637008
-361.77457 -6.2282138 -1.5601705
-360.89676 -6.8949842 -1.5606571
-359.98267 -7.212224 -1.50512
-395.85916 -5.2285838 -2.1153543
-387.54373 -5.0021515 -1.8429145
-386.46417 -5.5742984 -1.8631963
-382.56247 -4.7347207 -1.8692716
-381.65088 -5.1561351 -1.8678393
-380.68933 -5.7450585 -1.9080893
-375.2959 -4.8665905 -1.9275669
-374.18994 -5.1893139 -1.8044893
-372.78192 -5.2670665 -1.6854683
-371.47589 -5.4427977 -1.6170543
-370.05219 -5.5987639 -1.6481514
-368.77359 -5.5994768 -1.6895832
-363.48376 -4.8822474 -1.5447761
-362.44901 -5.4066415 -1.5540332
-361.37402 -5.9478383 -1.5314484
-395.74179 -4.4780202 -2.0789485
-390.43408 -3.2471349 -1.9161125
-389.20538 -3.5151467 -1.8910553
-388.13504 -4.1200161 -1.8623058
-384.07184 -3.2636995 -1.8550011
-383.25357 -3.7318377 -1.8562632
-382.22513 -4.3072538 -1.8679008
-376.81381 -3.2635562 -1.8878474
-375.71304 -3.7494073 -1.8078755
-374.3212 -3.7055748 -1.6732068
-372.98392 -4.0641608 -1.610312
-371.51788 -3.9297612 -1.6620529
-370.16925 -4.2483706 -1.7064034
-366.04294 -3.2303219 -1.5397118
-364.98206 -3.5537207 -1.5488664
-363.97354 -4.0269942 -1.5490134
-362.86148 -4.4469714 -1.5895419
-391.96408 -1.9440827 -1.8714794
-390.63446 -2.3231521 -1.8621233
-389.81424 -2.7939029 -1.9151342
-385.74664 -1.7226173 -1.8446679
-384.87524 -2.2999501 -1.8681843
-383.66537 -2.9852219 -1.8610451
-378.36179 -1.8215134 -1.8599715
-377.28101 -2.2733717 -1.7725289
-375.80948 -2.37801 -1.655236
-374.57745 -2.6828892 -1.5834867
-373.03406 -2.2996411 -1.6835638
-371.7179 -2.817064 -1.6988705
-366.49567 -2.0009549 -1.5477664
-365.52359 -2.5019791 -1.5466225
-393.27618 -0.39326513 -1.8240476
-392.29855 -0.87061852 -1.8587886
-391.40747 -1.4631211 -1.8644297
-387.3703 -0.36983734 -1.8919199
-386.40244 -1.0271159 -1.8697218
-381.07175 -0.022370899 -1.8751647
-379.91061 -0.39084411 -1.8321424
-378.80838 -0.82664102 -1.7359052
-377.22397 -0.72551066 -1.6451815
-376.16119 -1.0717503 -1.5968455
-374.46115 -0.63719803 -1.6979617
-369.18066 -0.16441192 -1.5841652
-368.10196 -0.53575444 -1.5555848
-366.96732 -0.94455183 -1.5658261
-365.87164 -1.4464294 -1.5025529
-394.71103 0.58676213 -1.795283
-393.89243 0.29238644 -1.8078942
-390.02618 1.3591955 -1.8293141
-389.22189 1.102789 -1.8545519
-388.10568 0.30701542 -1.8764883
-382.5871 1.3865566 -1.9028175
-381.49857 1.0346124 -1.8129581
-380.32532 0.64108557 -1.7272462
-378.86282 0.66081494 -1.6111171
-377.63519 0.23693605 -1.5711037
-375.82397 0.3739588 -1.7028668
-374.84705 0.10932481 -1.7152836
-370.68921 1.3792282 -1.6152227
-369.70462 0.91334945 -1.5618187
-368.40704 0.52649611 -1.5659231
-367.39832 0.14459985 -1.5970333
-391.66248 2.8622572 -1.8411679
-390.70551 2.1728697 -1.8350908
-389.78412 1.6000748 -1.8352762
-384.1402 2.8550179 -1.8469397
-383.16135 2.4379222 -1.7590376
-381.78741 2.1418386 -1.700349
-380.35599 2.0761561 -1.61632
-379.22958 1.7916882 -1.588647
-377.40414 2.025176 -1.6864773
-372.32065 2.7582808 -1.5840487
-371.15942 2.1553524 -1.5632507
-370.09433 2.0168273 -1.5559876
-392.12531 3.3107255 -1.8288642
-391.48056 3.0805826 -1.8454314
-385.80649 4.2696028 -1.8054917
-384.70865 3.7313042 -1.7286643
-383.30051 3.770577 -1.6311921
-381.87695 3.5012722 -1.6150275
-380.67068 3.4385359 -1.5962162
-379.24466 3.353518 -1.7379879
-374.07654 4.1324453 -1.6285353
-372.71228 3.791091 -1.5617868
-371.617 3.298743 -1.5458277
-370.35922 3.0874841 -1.5167246
-387.5282 5.6029005 -1.7536769
-386.28052 5.085598 -1.6967187
-384.72354 5.2378569 -1.6194376
-383.43991 4.9148321 -1.5853982
-381.98978 5.1664839 -1.6369426
-380.75653 4.6639042 -1.7497768
-376.62546 5.8663511 -1.6610664
-375.60098 5.5245271 -1.6209184
-374.31342 5.2824321 -1.550447
-373.18527 4.7501407 -1.5623513
-390.07437 7.2592583 -1.7892023
-388.92761 6.7766356 -1.7102685
-387.82495 6.6296039 -1.6363808
-386.25754 6.6357951 -1.603915
-385.03467 6.2894778 -1.5781757
-383.13165 6.3948522 -1.7065187
-381.68436 6.3363266 -1.5833142
-378.29898 7.2833247 -1.6046808
-377.10284 6.8867617 -1.6137463
-375.76855 6.4890995 -1.5517912
-374.72446 6.1282182 -1.5587273
-390.03912 7.7328138 -1.6762108
-389.22693 7.9210992 -1.6064126
-387.88162 7.8744059 -1.5613848
-386.18469 8.3738623 -1.5914036
-384.89749 7.8025112 -1.7012144
-379.87823 8.65487 -1.5863788
